ply
format ascii 1.0
comment made by Greg Turk
comment this file is a cube
element vertex 158
property float x
property float y
property float z
property list uchar int vertex_index
end_header
1 1	1
23 -0.846220404175171	-0.748780575393352
24	-0.905578362006624	-0.7867822692736
25	-0.132351750097773	-0.131965687765204
26	0.762558450479603	0.690773645402161
27	0.956375928404503	0.817107715777666
28	0.270905788307869	0.267604299558628
29	-0.663633884212968	-0.615983537819114
30	-0.988031624092862	-0.834944331803534
31	-0.404037645323065	-0.393134075561214
32	0.551426681241691	0.523902977317992
33	0.999911860107267	0.841423359352133
34	0.529082686120024	0.504741663720091
35	-0.428182669496151	-0.415218223757294
36	-0.991778853443116	-0.837000694207134
37	-0.643538133356999	-0.60002961923972
38	0.296368578709385	0.292049036477002
39	0.963795386284088	0.821362392761248
40	0.745113160479349	0.67805498901412
41	-0.158622668804709	-0.157958316993345
42	-0.916521547915634	-0.793489494662035
43	-0.831774742628598	-0.739127939126498
44	0.0177019251054136	0.0177010006128076
45	0.850903524534118	0.751876409367239
46	0.901788347648809	0.784437311147412
47	0.123573122745224	0.123258862664491
48	-0.768254661323667	-0.694881181719898
49	-0.953752652759472	-0.815592626901243
50	-0.262374853703929	-0.25937485959603
51	0.670229175843375	0.621165603718742
52	0.986627592040485	0.834170821941035
53	0.395925150181834	0.385661934446584
54	-0.558789048851616	-0.530159824155593
55	-0.99975517335862	-0.841338679191421
56	-0.521551002086912	-0.498225529013659
57	0.436164755247825	0.42246639691449
58	0.992872648084537	0.837598719824157
59	0.636738007139138	0.594575838111187
60	-0.304810621102217	-0.300112531340898
61	-0.966117770008393	-0.822684879845921
62	-0.739180696649223	-0.673682655620665
63	0.167355700302807	0.166575579115215
64	0.920026038196791	0.795617394231119
65	0.826828679490104	0.73578741657212
66	-0.0265511540239668	-0.0265480345336078
67	-0.855519978975322	-0.754912033937755
68	-0.897927680689291	-0.782037054207545
69	-0.114784813783187	-0.114532920873197
70	0.773890681557889	0.698923124549787
71	0.951054653254375	0.814028526260622
72	0.253823362762036	0.25110664561585
73	-0.676771956887308	-0.626279714027006
74	-0.985146260468247	-0.833352943530653
75	-0.38778163540943	-0.378135695818029
76	0.56610763689818	0.536350984877551
77	0.999520158580731	0.841211628519149
78	0.513978455987535	0.491645549878298
79	-0.444112668707508	-0.429656796255704
80	-0.993888653923375	-0.83815331717266
81	-0.629887994274454	-0.589054250539635
82	0.313228782433085	0.30813191887946
83	0.968364461100185	0.823960041098155
84	0.733190320073292	0.66924358208068
85	-0.176075619948587	-0.17516722818059
86	-0.92345844700406	-0.797692054732051
87	-0.821817836630823	-0.732384787698462
88	0.0353983027336607	0.0353909106162289
89	0.860069405812453	0.757887844022466
90	0.893996663600558	0.77958108276669
91	0.105987511751157	0.105789190658524
92	-0.779466069615805	-0.702899740633937
93	-0.948282141269947	-0.812415055697497
94	-0.245251985467654	-0.242800777592747
95	0.683261714736121	0.631325895123269
96	0.983587745434345	0.832490476262633
97	0.379607739027522	0.370556161992748
98	-0.573381871990423	-0.542476158734694
99	-0.999206834186354	-0.841042170845045
100	-0.506365641109759	-0.485002163048478
101	0.452025787178351	0.43678875454987
102	0.994826791358406	0.838664640982179
103	0.622988631442349	0.583464944784921
104	-0.321622403162531	-0.316106188485082
105	-0.970535283537485	-0.825188190680162
106	-0.727142500080853	-0.664737579511633
107	0.184781744560667	0.183731997965341
108	0.926818505417785	0.799713881558584
109	0.816742606636317	0.728919691874885
110	-0.044242678085071	-0.0442282459538865
111	-0.864551448610608	-0.760804238650462
112	-0.889995604366833	-0.777068980854937
113	-0.097181905893209	-0.0970290085628607
114	0.78498038868131	0.706811308152659
115	0.94543533402477	0.810751850783808
116	0.236661393364286	0.234458392292703
117	-0.689697940935389	-0.636304191336912
118	-0.981952169044084	-0.831583189476671
119	-0.37140410143809	-0.362924157239049
120	0.580611184212314	0.548535067169754
121	0.99881522472358	0.840830257560703
122	0.498713153896394	0.478295828257734
123	-0.459903490689591	-0.443861627489551
124	-0.995686986889179	-0.839132834559671
125	-0.616040459188656	-0.577808029275214
126	0.329990825673782	0.324034349080156
127	0.972630067242408	0.826369634433205
128	0.721037710501732	0.660164473504966
129	-0.193473392038468	-0.192268634571677
130	-0.930105950186762	-0.801683277006465
131	-0.811603387136701	-0.725391775797865
132	0.0530835871460582	0.053058660241625
133	0.868965756214236	0.763661620508932
134	0.885924816459948	0.77450033264238
135	0.0883686861040014	0.0882537187938022
136	-0.790433206722889	-0.710658116275374
137	-0.942514454558251	-0.809038541146033
138	-0.228052259500861	-0.22608064282584
139	0.696080131224742	0.641214664591903
140	0.980239659440312	0.830630842351999
141	0.363171365373259	0.35524052757155
142	-0.587795007167407	-0.554527453644502
143	-0.998345360873918	-0.840575827978375
144	-0.491021593898469	-0.471527028293848
145	0.467745162045133	0.450874793763948
146	0.996469173121774	0.839558029673907
147	0.609044021883292	0.572083632881275
148	-0.338333394324277	-0.331915429449273
149	-0.974648648094495	-0.827504669617253
150	-0.714876429629165	-0.655524104540026
151	0.202149881415654	0.200775896970093
152	0.933320523748862	0.803600639894127
153	0.806400580775486	0.721800693952633
154	-0.0619203372560573	-0.0618807764226983
155	-0.873311982774648	-0.766460395492105
156	-0.881784618814781	-0.771874722866146
157	-0.0795485428747221	-0.0794646726078116
158	0.795824096527455	0.714440464708742
159	0.939519731713148	0.8072747507969
160	0.219425258379005	0.217668698186126
161	-0.702407785577371	-0.646057394042781
162	-0.97845035079338	-0.829633184106532
163	-0.354910175844935	-0.347506140530045
164	0.594932778023209	0.560453083453206
165	0.997797279449891	0.840278809379455
166	0.483291563728256	0.464696269038445
167	-0.475550186871899	-0.457827655115532
168	-0.99717328877408	-0.839940346449376
169	-0.601999867677605	-0.566291905179095
170	0.34664945549703	0.339748478556013
171	0.976590867943566	0.828593584659118
172	0.708659140182323	0.650816328391938
173	-0.210810532913481	-0.209252557530807
174	-0.936461974251213	-0.805466365189671
175	-0.801134595178041	-0.71814610907443
176	0.0707522360803452	0.0706932213322401
177	0.877589787777116	0.769200972252837
178	0.877575335804269	0.769191737261622
179	0.0707221672389912	0.0706632276880318
180	-0.801152635733831	-0.71815866324237
